-4.170465469760281962e+01,4.402657527336006638e+01,5.107335202055284640e+01,6.743599621570425251e-01
7.332412239784332542e+00,3.051825903380907334e+01,-1.105861451437268883e+01,9.983273389528489750e-01
2.903166854161740673e+01,2.585766206510119503e+01,-1.499972635354050112e+02,1.004446075048683218e+00
4.961313215550205769e+01,-6.219969953285925612e+00,-1.380047500907214442e+02,1.443164901616465601e+00
-4.802324643824448458e+00,-1.457721721207613541e+01,-1.723674068895287519e+02,9.956744317009665890e-01
-1.896192339294054818e+01,4.044137923880094831e+01,1.211790233062785376e+02,1.206051436229175655e+00
2.893964328515613715e+01,-2.595349842802292528e+01,8.220824984712038486e+00,1.022669404942481375e+00
-2.232544914442337358e+01,2.343620424044782169e+01,8.812571348757789735e+01,7.487785957394578196e-01
-3.097130232218469814e+01,3.033692899595887127e+01,1.192743181876554104e+02,1.239694196956942829e+00
1.287370157024056994e+01,-4.745688398088256577e+01,1.065701040996758167e+02,8.111421148354578392e-01
4.461802723662849246e+01,4.835312346197136435e+01,3.579674373883085536e+01,1.033049848737985110e+00
4.941450807850046090e+00,1.360799379616139504e+00,1.496772584045639576e+02,7.879791164467689901e-01
-3.096270896080207535e+01,3.837866289877446491e+01,1.146333518556052411e+02,1.374331937925002300e+00
-5.120012216685890394e+01,6.127387041227670750e+01,1.293231532747385302e+02,1.188577952912685642e+00
-8.895707387206130079e+00,-6.011379559701063613e+01,6.861828534460477158e+01,8.489271753263171183e-01
2.035757984217219985e+01,-3.636250962193506098e+01,-9.337388580930306148e+01,8.722670029453118978e-01
-3.546317379853951479e+01,-3.523225054658885824e+01,-2.143407275789465771e+01,1.429424189225803277e+00
-4.888293156237270409e+01,2.364126632263599959e+01,-3.187626628021662611e+01,8.895476076942324672e-01
2.599126292622585765e+01,-2.040033298384196314e+01,2.875198763966159987e+01,6.670249553707432444e-01
3.595934224350283159e+01,6.328068622062968984e+01,1.311118150601467391e+02,8.359058846643385721e-01
1.139586745116176303e+01,-5.063204246099002148e+01,4.175352373296678365e+01,8.839475294265782823e-01
-4.771465098152361861e+00,-3.315466286297302645e+01,-3.677705219622200872e+01,6.982303716679294503e-01
3.438032919176809799e+01,4.912234061661986573e+01,1.786161197110243677e+02,1.472763362470670856e+00
-6.335643605987118576e+01,-2.639694013452512422e+01,-4.257552424146753367e+01,1.259019222567177909e+00
-3.095486927627214868e+01,-2.475417121101384055e+01,1.330259239169037073e+02,1.266297971606761497e+00
-3.252286646394074410e+01,5.419625001411483822e+01,1.027075640333290778e+02,9.891494031807855913e-01
1.962774568299160194e+01,-1.540583423885541947e+01,-7.655625913394626991e+01,8.993871845795052833e-01
-5.164746917532440307e+01,-2.545082507418362638e+01,-7.477684749983163215e+01,1.148648654776506017e+00
-3.447834267169594114e+01,-4.664216662524250978e+01,-8.861210472220624013e+01,1.152767810316421615e+00
-7.824771904720677185e+00,-1.562176380823706268e+01,1.212970265566277277e+02,5.553795104527459170e-01
3.371333174525875620e+01,1.482184724242287643e+00,8.766087160886671370e+01,1.158533833512994438e+00
-4.954696423131423444e+00,3.728975648644757257e+01,1.278041067940493889e+02,7.524624932327773630e-01
9.729174487370954694e+00,-1.697361540110802025e+01,1.579223800758605876e+02,1.382483652669101559e+00
3.364219084609923982e+01,-3.902007185921360133e+01,5.679907596511255718e+01,7.351420818992577821e-01
-3.477285877979957718e+01,-2.809035228989387178e-01,-1.054293429386535195e+02,1.297966153551797897e+00
-7.176682669341289511e+00,-5.601253798330205314e+01,1.309531649453913928e+02,7.407949159929962946e-01
1.922460706035833766e+01,4.245942686947786626e+01,1.077989654112927980e+02,1.000646034976869991e+00
-3.041905251526372922e+00,-3.444951156086233368e-01,-1.514839433051261892e+02,5.445926116801953487e-01
4.552385737290249779e+01,5.520682831301503768e+01,-5.888663661701293961e+01,8.059855158039016532e-01
1.468100832021258384e+01,-3.641139604477226044e+01,-5.681258044634595450e+01,1.331754576086932929e+00
4.831227252916647785e+00,2.376627132719298174e+01,-1.734235264359707003e+02,1.002684773093886816e+00
3.123026401710262689e-01,7.119003332504129844e+01,3.106635017517334063e+00,1.007143630862584516e+00
5.140540613805910652e+00,-5.109002511980955319e+01,-1.477823815322894347e+02,1.203522865422803401e+00
1.584285302673308138e+00,1.918323710716529718e+01,1.066805919995562419e+02,1.382853025017235948e+00
-9.848289291377028576e+00,-2.853802279752477489e+01,1.545472246111019672e+02,8.473512558404759920e-01
3.108111448634755902e+01,-4.664555886633556270e+01,-1.516948464934030767e+02,5.177000085617464720e-01
1.649327458516496847e+01,5.533593102199399993e+01,-6.380095765462069579e+01,8.764809906044086496e-01
-1.901379111118677656e+01,2.707605945819787507e+01,-1.783080518677523116e+02,1.254087632335383340e+00
-8.489108623296800715e+00,-1.043294069970653482e+01,9.574403355556157180e+01,9.807356309871206879e-01
1.330128343110862943e+01,1.564925644779222580e+01,-1.041511115426629601e+02,1.047437501268308369e+00
-5.407939997959368839e+01,-4.794057683555109861e+00,6.506258507554019843e+01,1.169011338651307241e+00
-1.898067594818695625e+01,2.987885900867723876e+00,-1.540176707198771737e+02,1.387575648876409495e+00
-6.140232442608285623e+01,4.692321715193470766e+01,-2.016934919258868586e+00,1.110639549305769025e+00
-5.436203823119703316e+01,1.487647729760332993e+01,-4.637619325800444159e+01,1.132843295395225436e+00
-3.487914740588388440e+01,1.719493031287285589e+00,-1.735096462890666373e+02,7.048440234381797564e-01
-3.680483689212508125e+01,-1.332840373149679181e+01,-1.317588712558822976e+02,1.011091474676686808e+00
-3.538827885681641305e+01,-5.406414479852060140e+01,-9.052316474837427052e+01,6.560601389818484508e-01
1.879253257860383997e+00,6.111332764512610538e+01,3.987503322035378517e+01,6.256648363113413991e-01
-1.104432642541431164e+01,5.656945794077813616e+00,5.457581057824909720e+01,1.426981269288334575e+00
2.588568622536959651e+01,1.146854276325569799e+01,-1.098744632270401951e+02,5.614335085516447554e-01
-4.652709674446148824e+01,5.615555468388140525e+01,4.887307772110950310e+01,1.269799506434047709e+00
-6.036827903166511078e+00,-5.597438540224928261e+01,-1.560531930754769121e+02,1.411356097811949706e+00
4.974493886172913903e+01,-2.435888990997767678e+01,1.351916492472563505e+02,1.297684425559060051e+00
4.864360427167058276e+01,3.058675388587865029e+01,-3.555924657956440882e+01,5.641527086312329020e-01
-5.973760770568225098e+01,8.506537235106662820e+00,-1.015902767211555329e+02,1.308728342106241893e+00
-3.126304725850323507e+01,1.338707372748048385e+01,5.914583975429033558e+01,1.180097715831559091e+00
3.381285792520567668e+01,1.171415798110302831e+01,-3.745633531567752073e+01,6.213651360847678440e-01
2.706269453147726267e+01,4.286071474481687460e+00,2.164977918423858938e+01,1.034728799021487955e+00
-4.163332094218051793e+01,-9.345513163554983294e+00,-1.525162878543050056e+02,6.361971961755203964e-01
1.263787880691944565e+01,3.762150567505486265e+00,-5.433750461098425433e+01,1.356027454965443191e+00
8.974446303968051097e-01,5.164473814911474392e-01,-6.256358695880430787e+01,6.788106493080651171e-01
2.067543109709436067e+01,-2.940411604248518529e+01,-6.006982854495017676e+01,1.260101697017528277e+00
9.224786558910111012e+00,-1.661160821763803597e+01,-4.211907713403051368e-01,7.135956931201230535e-01
-4.408200598215398713e+01,-2.954037177254093649e+00,-1.670599642558165954e+02,1.021440114257654574e+00
2.628136573043904889e+01,2.495430173814978048e+01,-1.785705315060002647e+02,1.288131689088013676e+00
-6.222411316070048315e+01,-5.398294181075678466e+01,-1.943554530456604823e+01,9.730250616905201655e-01
3.104598614875092721e+01,-3.807371396506059114e+01,3.051594383788316023e+01,6.316224842317191834e-01
3.400468554739124727e+01,-1.408086066284008098e+01,-1.783255874951067881e+02,1.485438093633451473e+00
-3.146764969847959037e+01,-2.986143859665935452e+01,7.610107378974470294e+01,1.460273679906816557e+00
1.185901191085974915e+00,-4.598580537953159819e+01,3.163901009719663904e+01,5.631790633923817735e-01
5.888729023697649723e+01,3.015122816394678296e+01,5.472612822525801946e+00,1.424448870865026251e+00
-3.470456766760926826e+01,-2.483787246507526447e+01,1.117793003052491407e+01,9.051083157866763873e-01
4.021150070227537299e+01,-1.251557889058969408e+01,-7.534573375186059252e+01,7.322388712591058058e-01
2.699927834122176762e+01,-1.988250155123711238e+01,-1.537720859239037896e+00,9.861264481130460613e-01
-3.106997661097554442e+01,4.713905278273226429e+01,-1.772692139284245911e+02,1.092014615728642557e+00
1.983147027056180889e+01,1.822895175596315198e+00,-5.546347878740612458e+01,1.122841337304460785e+00
-3.945349217851449453e+01,5.424028274836132368e+00,-9.664577865020284264e+01,9.778792419902135880e-01
3.881625846086885190e+01,4.486765975919874450e+01,-2.834620842311601496e+00,8.126368833704943340e-01
6.489830439065087830e+00,4.669040976112046337e+01,-9.353884196081666857e+01,1.315805656530105061e+00
1.297795416018016113e+01,-9.274672018705160781e+00,-9.004142886669910695e+00,9.906242192394031365e-01
-1.014619349731646025e+01,2.807684200783431550e+01,2.416582818225321283e+00,1.291744800558245254e+00
-4.303196132354543124e+01,-6.111997370455250689e+01,-1.603384946588046489e+02,1.149972448777363043e+00
1.767022417273670953e+01,-2.835932766402532934e+01,-7.293375069447225201e+01,6.607152124385728964e-01
5.445414926253792487e+01,5.708102709747552694e+01,1.672551022431433410e+01,5.834688234448346389e-01
-1.793604363255340672e+01,-3.729230288247651970e+01,-1.118618681319797474e+02,1.009058071063193340e+00
-4.390247422087986706e+01,3.661576351873834767e+01,-1.059811940801771470e+02,1.439577948030092980e+00
-1.287048140414313480e+01,-3.525138314513299065e+00,1.198787918361019820e+02,1.100499626455865965e+00
-6.459442329153810647e+01,3.350055991578958015e+01,-1.495396293557016349e+02,9.019135939714586492e-01
4.803950141598870971e+01,-4.706944932084323341e+01,-1.732273620024234049e+02,1.109374641175406850e+00
-5.757856747337476122e+01,6.160812518543247052e+01,-8.303259066606437955e+01,6.527984297686741932e-01
